845
3.27681379422,9.13216823646,5.64241214488,0.320587570536
8.00565970152,6.35185024626,1.48101825865,0.58949055467
9.44952718767,7.43978113764,3.53564922302,0.373753418666
5.78968391605,2.18445123748,8.79652257118,0.462961360811
6.31196392686,3.7795520565,3.13532883969,0.371289811685
3.22522353275,1.65851323073,6.82085452482,0.370429576807
3.47041978766,9.06731869096,0.637407676288,0.427450828514
7.92892965482,5.32897091431,6.5720624839,0.129947044604
3.82878936498,9.60510601122,0.673528800443,0.23936861528
5.58815834446,4.42116075712,9.40290391056,0.305578953508
8.09165309263,8.03104131357,5.97615091069,0.517753469194
0.694667472329,5.00385905894,7.43981475006,0.16121779161
2.38004197688,0.775879800251,5.96743788839,0.155573531808
4.00999345051,7.5252034693,4.63137340036,0.290510604524
3.62742450848,2.3231878586,7.88174480887,0.326112271803
6.76801706363,3.90272125904,2.77807295625,0.238332306571
4.60614643606,8.97040719377,7.92354563459,0.564280629907
6.90836898494,6.8672319006,2.27922887082,0.206329688916
1.45124774796,9.3491612196,5.17751314699,0.311521039302
5.81855451349,5.22981566106,9.17355934652,0.115463741525
8.59215117854,5.36829240714,3.68965956551,0.313840745046
5.88034774358,1.5339217496,4.17924624238,0.240313742175
4.81422321041,3.90719143835,7.18973376618,0.576084032844
1.72401468423,6.03613070451,7.17166769774,0.387212161369
7.76172949422,3.24627530636,4.79637454682,0.172367389269
8.89631010162,6.38267112417,2.47559074208,0.209206283669
0.613283558099,6.55571141668,4.72805952689,0.320592038736
0.626561479572,3.70685241846,3.34454891119,0.430223162679
0.632208438553,7.2895914859,5.32411403205,0.581455806106
4.66692114304,6.33823910726,8.999481362,0.595364342484
2.26170853723,6.42357298281,2.5322864424,0.492524608022
0.683667079882,2.83929490773,5.07567581201,0.467281834338
8.10944153743,9.50731576771,1.31330458223,0.176431820797
5.02145874394,1.27713089576,2.72437629094,0.208434449928
1.86089079241,4.05400928927,7.88367557883,0.297083875276
4.47404232784,2.68248777934,3.71037346741,0.401900077405
2.16169913492,8.37562237731,3.57323924016,0.441996919924
1.21893050924,5.73232867597,1.78033342905,0.266601262617
2.89834314126,7.05791828872,0.502431961602,0.431282266077
3.47338421978,1.34175283942,9.20166122229,0.548026034768
4.29058898646,1.02976400683,8.02036383662,0.557263719106
2.79967319556,0.585335525249,7.62395406325,0.248009599873
9.43069897265,7.00877949933,2.92894247044,0.49070631608
7.70370530663,0.733670948316,4.50374257987,0.490014540783
1.33046334004,3.61592073844,7.66348897217,0.344369968935
8.28320220688,1.25213426036,5.85762526499,0.291164526959
9.1865499704,7.3261299149,3.00187381356,0.353203535799
9.04424873416,7.04776894007,1.11337472689,0.580363542964
8.88623147005,7.54946206678,1.34930147608,0.199521342741
2.00810296195,4.0329365879,0.695555520745,0.429147500824
6.88135650803,2.07031543632,1.05077008732,0.341410364381
0.781943689557,1.65139650138,2.30876979478,0.458932529362
5.73090118407,9.35605986725,5.69469009739,0.406486839535
6.88964717497,4.38555802236,2.49030113612,0.281218375319
6.09948832233,4.3414110462,6.30050774785,0.196384938898
5.7196944328,2.52649034969,0.962334593789,0.61991357987
1.53688426395,5.60461384475,2.03808635656,0.410432583351
4.52617879507,8.13707484511,7.1026599347,0.348155113639
2.37245772349,0.384378805209,2.86728981708,0.205873128722
5.35318534813,8.18643113621,7.42476375672,0.270186748887
6.56601221135,5.070559301,4.56275381068,0.366833322405
9.13961725152,5.42414085536,0.745511299064,0.449454384481
2.83379614061,1.32096448237,4.29355863676,0.729775853142
8.39195190323,2.28764203577,2.20020285764,0.422507849836
3.95049228302,1.93937699654,7.56057933301,0.470857897845
7.71657014968,5.12301791543,8.71079277561,0.374106876256
1.68935133379,5.72150959231,4.09004443039,0.693102085194
6.5085690378,4.59327182819,3.43627998484,0.472720736096
3.05280763908,8.11502448239,2.78712583564,0.279054598132
6.0386111626,1.7288788414,8.16342276352,0.215654185998
9.34948719252,8.90334323676,5.79048173214,0.474003124499
6.61824545676,3.50869191021,9.08832434093,0.331288533038
5.14295607329,8.55779137731,1.02750689743,0.466094762683
2.39562619684,1.41317244616,2.29240068457,0.195812687337
2.67067768628,2.81615153486,3.93858553583,0.11957783702
9.43016398778,8.09912546154,0.659866410207,0.517108608265
8.21485134976,3.3672475755,0.47965291357,0.380108586483
3.12217748433,7.5210023279,8.91834519752,0.555992142921
7.50098944684,7.96678425915,7.09973001044,0.538608922488
5.37173821867,7.30720890677,8.49692227607,0.308330637313
2.67727622903,6.59577856896,4.66502370918,0.41427018706
2.31856709518,8.84937171409,2.23206004245,0.351885939493
8.057814648,2.21777131457,6.38368400141,0.215050295024
1.35794291905,9.49214667705,5.83670326057,0.428389010766
7.02836968578,1.82534353645,4.97247832873,0.729497198163
8.56438468079,9.41354109302,2.90273356307,0.453802153132
3.33155376803,6.23444065722,1.03952945806,0.42103488556
3.6236524733,8.58127301405,8.07026919086,0.237520575376
0.601344857466,6.39768896327,2.25637491869,0.451751165729
6.52241639903,2.63004052828,5.35888484425,0.677952719993
3.82985291407,7.1792645896,7.80085558342,0.282369918788
7.18316165795,3.12088572926,7.59076342279,0.386287031628
7.41695221957,6.30383827318,2.22805162619,0.652704406396
1.79333143157,1.13436103599,2.57741689614,0.166018119972
7.59181235567,9.21223953107,6.80097994515,0.296405050481
4.19976903751,9.06735944257,9.34639916611,0.573892540889
3.36927102832,6.89538220704,2.74705882558,0.440769779446
4.09644939629,0.541463361744,7.13827321305,0.180647989987
6.30313650119,4.6387916634,5.9072097998,0.301897899637
3.57025063974,4.42582524256,4.72355231904,0.375736167356
3.61402887509,4.06127593069,7.98017692165,0.272374112755
1.46064593829,0.379693778734,7.72728591096,0.29694846057
0.880798477902,2.10486046121,0.478685173754,0.416626269349
2.99952154452,0.96039931408,6.07868474292,0.24373036769
1.07258284199,4.79826991232,4.50099412839,0.26488852736
0.767513249113,1.55779289689,4.58856278561,0.43698129813
4.80851832618,6.33131925606,4.93944949316,0.345903181008
9.53927344199,0.248685696833,2.00132800694,0.222173691042
0.910913433522,1.12374022154,4.28810631836,0.509569595476
5.6322768555,3.53995529646,7.94481955901,0.421813734305
3.16907977925,3.596119151,4.52157365469,0.451579457269
1.98132052034,7.92728078751,6.6425234847,0.31198136279
3.44361478408,2.24312721539,5.81483832062,0.448585047508
4.39633212725,3.61101398504,9.72244309662,0.105864712159
2.10475337791,8.4557249362,2.82177260742,0.513314337638
6.50141049897,9.46179930869,0.254799156054,0.184543472293
3.85241375616,4.31303000265,1.66351925494,0.417708773447
5.07187257488,7.60824417148,2.98817002436,0.685244360904
1.73397173408,0.935045249698,8.16339740469,0.409279432837
6.1445914884,3.27755249549,6.92127831214,0.221287180407
4.80999649431,7.00990589483,8.72058594012,0.658652939175
3.81320486521,8.9868490112,4.75158035192,0.495758170209
8.80024932563,3.09897208519,1.69866705538,0.29423895338
7.43644849931,3.10205782242,0.841413060895,0.334299068073
1.05981832667,7.23708953863,3.39733645138,0.350633380485
1.51578859048,5.18554823596,3.98076843267,0.365430183994
8.14344113011,2.74922798093,5.57487411573,0.458782670184
5.38514678668,9.51646862803,2.12056358673,0.39528966292
6.24572162367,1.0624309052,1.85909781527,0.364941112652
8.10988737294,6.66993814039,4.00775163221,0.278767116677
4.88864804299,6.1227393253,3.46839156207,0.347859593184
5.04370230429,2.72185899616,2.38639747126,0.564762452673
8.59995091478,3.85631393124,1.8242262515,0.394080151281
3.84109866921,9.77523046446,1.47092162923,0.182506905404
3.86526404229,3.44565142458,4.4764873373,0.693788119095
7.04398178682,2.48634942432,8.60498216234,0.238597016854
2.60602149728,1.9397763453,5.53734083924,0.444518829942
9.36808226541,6.13400576327,6.73356968065,0.292711762037
6.3481000099,6.8412623208,4.13644970213,0.259860007504
3.35466986311,7.20332879653,7.71904759369,0.181392382087
8.1240700169,4.90301719089,9.29467930214,0.295886533445
3.13113219231,6.60909839921,8.69287742831,0.137280776237
3.68668596589,5.64892390283,3.92776414281,0.484177611643
1.10947472676,7.22953503205,5.97929687743,0.696433499421
8.37279393968,1.06377798002,8.93130048038,0.351975847981
5.15498462454,1.6315374044,3.76688475956,0.375662782565
6.92830910043,4.92009677825,3.01152735377,0.288497165784
7.45727002205,9.56204515132,6.65747307081,0.167327625048
2.13897890676,0.533410745562,7.2162606023,0.501001774219
9.22543394924,7.01268525629,4.97862053511,0.237874336831
6.69029835353,5.81570556697,0.730750587444,0.291327526018
5.43878211092,4.68523277562,8.45462840567,0.501546427094
0.909263768915,3.43124883326,2.74034027808,0.543294748841
7.44580668501,7.03702014115,6.98728803175,0.319339069644
9.53164725235,2.67202329185,8.73894689866,0.405992940782
5.97940016369,1.35726494312,2.48971706917,0.272213148811
8.97407949358,7.92777809221,0.857027164712,0.271678213894
6.89468056934,9.66293093434,7.77225207885,0.131481906423
8.25906235911,0.787755732831,9.54351688678,0.291829407373
6.13003671364,6.09980449566,2.90484234716,0.609425014556
6.23384900339,8.18945689336,8.18738890308,0.216156374137
6.15098851686,3.67787718667,1.65808575432,0.273363044887
7.13756687757,6.98788006991,4.05649566899,0.502246783452
4.47167579932,6.30856823068,3.91203281948,0.404133164042
8.04944150457,5.71477004915,7.93591628504,0.231800853524
7.44545398357,0.460513904874,7.08682766708,0.132176935381
0.71986712907,6.47891474559,8.00280473114,0.609522839769
8.24787507941,1.59037135118,3.38625993557,0.376928017408
8.91161419729,5.07058005499,0.494600434978,0.312349348392
3.74211922363,0.863545108654,9.52541366095,0.32894325443
3.69800635127,8.34093323213,5.45902505563,0.49575087151
4.95846043342,7.09188972784,2.9218828985,0.398499358125
7.74689685951,2.83914650944,1.99875357075,0.226860557829
4.61261524685,8.46792886394,4.40470864748,0.672975681863
8.50271937112,1.72609565712,1.63247956819,0.633532990094
4.34397883521,8.82435716338,2.10293674424,0.589545547469
2.71647367246,4.46140278153,9.63089188918,0.211336740844
2.49477870501,1.95009669362,0.655502860063,0.297872514836
6.96828778317,5.07409416509,0.596339865566,0.288489099497
2.96329091354,4.24900139249,7.02859797672,0.396859169869
4.47479457985,2.0867881843,7.26069969092,0.309248749688
4.72087952228,4.41395922831,2.26128960452,0.317390929938
2.39465298106,4.87729429237,2.42465464124,0.520491258166
8.30205121542,5.55011811984,8.00042433049,0.25002712907
8.76148073723,8.63198712975,0.462118779361,0.338449644582
0.615366612252,8.81477980991,9.51432526533,0.303922663382
5.86905604983,5.45177649604,9.61604622734,0.333029110081
9.57347045225,1.36170223426,8.06173819415,0.417804466851
1.673769868,9.05061673268,1.23845819292,0.182097723781
2.82928938334,3.2334513597,7.28362421369,0.368513866606
8.17080678592,6.01235652128,4.63760687339,0.412219363735
4.10152013398,7.52868120495,4.95659769375,0.221555184507
3.80971365471,6.82067910831,8.90345668823,0.372549335693
9.29074717013,3.19852041329,6.78454028574,0.598337020896
4.61914912736,1.6198580063,9.40023868016,0.527335825868
6.32800378495,6.21060665898,2.99410961373,0.185995799446
0.785495106839,9.09939363043,3.66816682744,0.574399631115
8.87810697339,5.47925771951,3.06102435048,0.174304499805
2.51185858746,5.69135700172,0.1659837372,0.129748743321
5.08558147628,1.3867320665,1.56719052454,0.465848876769
1.4109839192,6.45960929007,8.15020986872,0.613820776494
1.67234710275,1.13816337687,0.257783277394,0.210439879415
0.80187732347,3.77387549023,8.32874805986,0.414702372431
9.36563913223,6.25598018967,0.650331896396,0.301013141696
1.44595637265,1.24718466274,9.21067300251,0.505045408534
1.05553191063,4.61703287218,5.32188668046,0.10683706138
3.11301675954,7.22615931871,1.87549569761,0.178520777914
5.92862023427,9.27906568401,6.78217803516,0.138675920068
3.47062841501,6.24643609107,6.61701229786,0.14384728942
6.25674034244,3.3896942096,4.7315159068,0.708698803569
1.71840164262,1.03699743301,9.44776024026,0.394771060692
4.16652432455,6.25485845191,4.14092530597,0.279513158724
5.38217294747,1.02517058968,9.60157191428,0.313081611235
2.9983544906,1.88404993664,1.1945666209,0.172998856885
7.13367882935,0.500905550167,6.6958570118,0.375960801327
2.72437590867,4.40826632544,3.10991707209,0.307219676597
5.96249604615,5.77442277662,0.453681225568,0.420515452631
2.10486229811,7.87110500014,9.08954544295,0.20109048577
7.05923468485,7.68031943423,1.74697328909,0.609065269774
6.65380959723,8.04260508627,9.30770833596,0.397185572629
6.80834743883,3.20968306943,6.85956227886,0.403821998255
0.971850105939,6.82615678852,5.37998190476,0.230490130115
6.00220898748,3.42356932554,2.91172712091,0.162809081388
9.39079039681,4.1678930492,2.66356043902,0.240435807223
9.17327286183,4.68481644973,2.5239078898,0.222589220816
0.576986597003,7.79487993032,4.65194532286,0.554874437239
6.62977262573,6.06014501948,5.93689367013,0.206214829264
8.11978385055,4.63138151785,8.78873007515,0.210459350496
1.11079610951,3.49900088364,1.01559884735,0.307844433614
6.73497249717,5.30810005563,5.86415722536,0.495587493803
4.3470235935,1.38337883892,3.56751908423,0.304022709439
6.60274453781,4.16693471699,3.80169453807,0.146655520497
6.17515682557,2.65459702234,8.15487536258,0.440336303825
3.33476163301,0.987925666125,9.31860625637,0.186458658944
3.73870600203,8.41996257217,9.12687570615,0.422135265623
3.82876177709,5.8491984005,7.90778241884,0.208539907265
8.66141716909,8.40037744548,7.09221719798,0.155783982293
9.66948275727,4.57849189981,9.47545617299,0.135366568323
9.33148811958,8.74295259583,1.60963240336,0.258763525944
7.0054636407,2.57759986985,1.84952074967,0.224411222604
4.90638560043,3.10880555611,1.43336226941,0.290503941776
2.1560884045,8.67613474433,3.71521801094,0.227802697616
4.24924598086,3.70742118344,4.31414800942,0.184724482845
7.78047463626,6.28877145329,5.5619019172,0.324830323488
2.87509700748,3.47821616564,5.29357526379,0.186684581348
7.91812606913,5.96543347174,9.29597810121,0.429441135756
0.716638869077,5.38393495316,3.38422168405,0.547341371143
8.79454264154,8.8616628768,6.7486683819,0.215619679763
7.76051864103,8.37150684375,7.79004847022,0.811861718237
4.05936727122,9.55229039174,3.55505192221,0.348633197559
4.98081478606,4.92855594901,4.08177888432,0.384263586003
6.1103207701,7.7513303504,6.61662512311,0.115842672465
7.60345608232,6.52035707801,5.74100538465,0.333498818371
6.79362353436,8.05420279157,3.6053812289,0.367954486522
8.93809534425,7.76273614494,6.02203046319,0.47844155972
0.971644025895,8.0942318366,5.62201814446,0.432640763893
3.05976090584,4.73596157228,4.57455910546,0.344209145547
9.25463622504,3.8528188843,9.42293610891,0.529711909728
9.19574184956,4.16466410204,8.96294089963,0.399025654274
7.14078246963,7.36178378944,8.44718428896,0.373846709561
3.24769923411,1.6826188862,2.53284999167,0.192193658707
3.94041275839,7.17051223405,6.69675513732,0.493027758712
4.18697636284,9.04767074687,2.03377611875,0.17661980459
4.81813348018,8.33356885573,7.70324017254,0.532207022284
3.9668352872,2.52387837266,5.15760118033,0.409018891615
5.40956851535,2.16615085029,1.01410730836,0.397589231334
4.03232163976,5.23759704695,6.48911131404,0.415686981387
3.8306470785,0.914798104728,4.56239350254,0.799115592422
7.21687681947,3.31890174822,8.43608501746,0.296958767648
4.10641619127,5.23074725217,7.8008119692,0.325053958276
3.11514710071,9.033814143,6.79277804516,0.495227670756
5.08364203887,2.50231284194,3.92787907921,0.432330325968
8.9206050428,2.71553021848,6.55104381004,0.253858001458
2.94198757551,8.34147033863,9.36692269958,0.56803678994
0.830735363192,8.1243122078,0.409561968593,0.3264943311
5.27507058903,3.74211235443,3.23485520914,0.290831208131
2.42219751116,3.99321834247,7.77234613236,0.403150109472
4.58943924265,4.12008298143,5.44257389671,0.237607018536
7.57530498126,4.00264433746,3.316095918,0.345167258215
1.87197765343,4.76051744972,9.20706847042,0.529142897941
3.6787925674,9.09234667048,7.46812510084,0.185861098644
9.26911916118,8.96106896535,0.564847190924,0.436591022285
3.21136154979,9.48741286085,0.895114191572,0.40004110886
9.42700737759,2.49115966536,4.9595959173,0.156726856528
8.65801964433,8.53361955367,9.01710548475,0.569816023354
2.56941598563,6.05181902971,5.368713631,0.30767093823
0.463381537079,1.59145199204,5.26698659414,0.28020322402
5.21711151439,8.37397946431,0.535944844181,0.384689332423
2.07775314174,3.15188388747,5.70901460886,0.30778382414
0.363159530509,5.03530004842,8.05380901537,0.294356339418
4.37565825699,2.22379545541,5.70890658754,0.545907064332
7.13735498783,1.43499450651,1.56422882027,0.567632011044
4.83582312846,3.31108158754,6.9716743238,0.437223280727
7.80184219571,0.935068081608,7.20608116533,0.324326099333
8.41436175857,8.35325143856,1.74743694115,0.41588313336
4.7467504536,4.1223028443,8.83978093194,0.317750717299
5.15978911546,8.57663612713,7.73238496215,0.197742638165
5.36883585907,7.82631040051,5.0276392179,0.428424584181
4.54243770618,3.36874566844,7.97168621444,0.248432791432
3.82423645916,8.50853936924,5.2385414277,0.267281079255
8.51408002757,1.25270899934,3.33579246109,0.114353545382
2.37201718522,9.68219809275,5.05651327656,0.130020012394
7.09410339155,4.0772524226,6.4146798108,0.200846881481
0.655505082357,5.52530968938,2.08222695189,0.267359501333
3.58489823353,9.12390229506,0.405441576637,0.178748854381
9.48309633966,3.57464321269,3.16472354014,0.498666116912
5.52337819895,9.39739379582,9.37592243232,0.290543220422
2.29368083309,3.47151344833,3.04174374586,0.630359871036
6.67567540155,6.56063573001,0.55330016505,0.374563768661
3.1220012102,1.93433218672,6.25893815324,0.382801336809
4.16943908613,9.69090319927,5.32204101759,0.101458369763
5.03498107043,9.22199152709,5.39180674544,0.30846337852
3.84723295787,0.715095169668,9.04103205416,0.271673982616
4.21509923021,3.57482170586,1.04001968591,0.526003945599
2.32366101106,4.03735201832,4.3988380807,0.14152059274
6.77748352255,4.31897387657,0.663621930397,0.600189877273
5.29113515787,0.7395694152,1.49680270382,0.546456907706
0.608661539711,3.31163642635,8.03484615186,0.46144917813
4.91376441623,5.13488913296,7.22325629666,0.320995372974
7.27161571995,8.13131146513,3.58661100334,0.35773110876
5.71249916444,7.91325559395,3.24360197264,0.130443394216
5.97272078753,4.84434416569,0.663788428242,0.476073082701
6.60073327106,3.65321662116,5.41813041584,0.22515452854
2.89471805127,1.06288199511,5.27033084407,0.154955002137
4.20185949979,6.3766356445,1.07384312741,0.351837518992
0.369859413636,0.956016389119,5.95174818444,0.340512284702
4.49138368376,8.0954592196,1.76104685131,0.477115603157
7.21188942523,7.89212623424,9.27528638787,0.245421596863
3.71450787683,8.3934998676,3.99294049663,0.651865155742
3.3154350522,3.12557296838,4.86878149101,0.360964397997
1.04654091938,1.82316237039,9.14686410502,0.165171250279
3.71382762216,2.17407865592,2.08074427838,0.513203639041
4.44159186858,5.1720070504,8.18640200218,0.26676592435
1.40909755758,5.68164763313,4.75317227344,0.422433144832
8.52876419736,7.11570072125,0.525323422049,0.312480934412
0.481981626454,9.58173838998,4.12415444919,0.239584488759
3.36481853401,0.589379899859,7.57670224397,0.143014176067
6.54269027996,5.45787112459,7.6225472598,0.414810411384
3.62790922977,2.51536444447,1.42608410141,0.113866366854
7.23273045567,2.46074504252,5.80380493434,0.28700580406
7.49640006106,1.80982748521,4.08574795953,0.312285485764
4.80963384007,1.55849895689,6.77810912472,0.442704808683
6.84669451787,4.09613701676,2.13273852353,0.343323484261
2.92529717915,4.10085751624,0.751465432705,0.240543597644
1.89637683215,5.98942596992,1.55028653419,0.466476041454
5.819493167,3.95550477524,2.05893741926,0.113917212135
1.2224426565,0.679430714642,6.03257253453,0.454650210529
0.613965302899,7.83249638451,1.0890230518,0.286993964789
5.01132664249,5.73354724608,6.79775639351,0.432031572058
6.9601557876,0.732296367211,4.91514631933,0.25384785116
4.97607162936,8.71732908974,9.28017641646,0.451186996104
7.77705032502,7.1221804439,2.83736443295,0.263526550842
9.18891638386,6.58012568424,7.82910109136,0.161838816592
7.39324241943,6.99560759481,2.8149482078,0.282210787229
7.39799214841,6.56744096956,4.51293604317,0.291293736813
3.11543013265,5.68395942833,4.43960072395,0.102230896982
8.10256837519,0.982281567745,8.18338933331,0.57629064713
8.19734260816,2.90029541864,2.43262823548,0.195370186223
2.95214848567,6.30752273107,4.39864424028,0.231469435207
8.24786885261,0.748517773131,6.98948429384,0.322788680596
0.807495488885,7.00649772561,1.1725465003,0.69331920032
6.76694568189,5.81092517321,5.81292659032,0.164041288227
5.84403705573,1.32783204162,5.20802570277,0.105601017822
8.22695822313,8.92803993364,5.55354075008,0.47224687882
5.58324528023,0.577397845224,7.37644325439,0.48326417228
9.58918236376,0.500181357005,4.30951562521,0.352238846423
4.00730101626,5.87399001061,6.09446968478,0.520992586248
9.43023459439,5.13318203394,4.85207796127,0.198760104794
4.21331172917,2.07718436,1.54135136098,0.492071659546
6.69338625368,3.68096696519,4.09803775656,0.540558351076
6.99510075383,8.44001614008,5.61041239065,0.468589327657
7.03223832732,6.1000984494,4.99161006363,0.419630010184
1.93908364625,8.99300343526,5.85960974986,0.551809823628
8.08910086181,7.63884223437,6.86314954471,0.448823569324
1.49544235271,7.37984602453,3.82362408459,0.217712798849
8.85663627723,7.4927635762,8.6054640329,0.34717563051
6.41025613258,4.62513976487,1.26110994651,0.347670978361
5.70790314992,9.1942229945,3.92328231122,0.616428432471
7.18664620774,5.23895837265,9.39013892642,0.505275346768
3.80487876957,3.31405604483,5.72209898274,0.475466358478
4.27049062021,0.452241197893,9.0277098184,0.241996952248
5.90267093947,6.48993440486,2.45042468578,0.367956233673
6.86176777631,5.20346338644,5.15048734998,0.179110748323
2.91970594669,5.27695912722,8.75802864165,0.552894142299
8.69052508427,8.95888756571,5.46508988753,0.290353457438
8.89672431028,5.53100429472,2.02519445581,0.440171839769
5.40279346382,7.19914094741,3.23360404604,0.248373907434
8.7175394997,4.1400807731,3.82216824634,0.163854899365
8.15663773395,4.15169400133,6.65362921945,0.273519947533
2.95108029159,7.15606548736,5.10123022536,0.203545321459
8.02430121438,8.45752314157,2.15468562194,0.375467553977
3.97055261642,7.76663426588,3.27628996854,0.524020728785
4.07387351063,7.20116704683,1.10955794392,0.170086342351
3.02462856618,4.13846262583,3.35554567614,0.177107605473
9.02602657015,0.988909419805,4.34266188879,0.433588402865
9.00610862046,5.36725910173,4.2128601463,0.635509665591
8.25424028643,9.70877181452,4.64916033827,0.261955969306
1.5320888188,2.51720449531,8.62937851898,0.388655500812
3.77477590833,0.562638430906,0.887642857065,0.322937444264
2.42331417279,3.57857693279,5.36145284011,0.382171887755
1.33764631553,1.96961216452,5.88646864757,0.324020260638
3.59646351436,7.37841941152,5.49922192874,0.381790451833
2.14919206491,2.70275129542,4.76210104343,0.262863147555
5.77151440296,6.96343978331,3.81505026081,0.340367303071
5.60282561954,6.88592843757,7.97816419996,0.433977741228
7.45093244614,7.6144649544,3.73477193688,0.395028479814
7.10503392485,1.93347543362,6.45949249647,0.5001619948
6.42057356183,5.90463014989,6.64084050882,0.292849153932
2.52536022936,3.39714704823,4.35817769147,0.30305393598
5.55152276504,8.76796709063,5.50754173557,0.366103777428
1.06268753303,4.96880061435,5.54338834325,0.230981727502
3.23607364115,4.52959817292,6.65694163413,0.490929327094
6.54623695449,8.93457974479,4.01252939972,0.482703882592
4.52782422333,7.17619361767,5.68323994772,0.536571275238
8.30034133625,0.630916052074,2.72260315082,0.25867097996
6.02034624233,9.46689222295,0.961139246632,0.270064964086
7.92074761371,8.12857031213,8.90231330805,0.484785470524
4.0447827044,2.9390400869,6.06755971903,0.453904130948
7.66161921514,6.96324892168,1.65130232289,0.19635830266
4.111573225,8.9036383173,6.44874390083,0.575931580123
5.54456763666,3.52256414885,2.33329637617,0.465730003751
1.72211810372,7.67390659856,0.391848045601,0.301968169416
8.35890794848,6.74224029815,8.37322153324,0.420073040657
8.41488767402,3.10861025163,8.21686363412,0.2418105357
6.66220317845,1.40377255887,0.398925799755,0.38704558145
6.35377543744,7.69851167384,6.89831071547,0.211595090178
7.58982972656,9.42589174624,1.71237246868,0.162188764154
7.04873971978,0.408030553644,8.92497315098,0.291966442069
6.5111348168,3.41251362042,5.90289786906,0.260804353154
0.584337016335,4.378159061,3.71317516493,0.536535493601
8.11096820101,6.07180012331,1.82664102407,0.187807187983
7.37483665997,6.20703846296,8.16709051352,0.692780366962
0.82934179402,1.05987544589,2.35263026878,0.186445055496
6.5008225358,5.48691503105,0.489872641436,0.432141901734
0.97435426019,8.44471820051,9.42489718347,0.402366582483
9.11478172423,0.962190432187,8.35294212652,0.475436094585
7.83609543242,9.02669808369,5.17909223952,0.417023084237
9.56022313379,0.685452974331,1.70923203674,0.393016961347
8.05604226271,6.25723347916,7.52281278294,0.481729528967
2.42041211741,2.60084462613,5.95805626151,0.600351673787
8.10205739871,5.54025243661,5.20767051732,0.155544211797
9.60806135985,7.072018033,5.4076771051,0.156717929257
9.35055923763,5.76422001152,8.24343892913,0.300584989061
5.84356131849,8.33709928454,5.30361267377,0.552732477614
1.35158094666,9.47839718305,9.28476713294,0.371333356486
2.13726309773,7.03263230585,6.92672656137,0.167218392419
7.18466750503,5.79889913906,2.28258737378,0.341486079566
8.33340810522,6.7412517961,1.56356732159,0.435666534873
4.12729054577,6.71880605119,7.24631644801,0.114516714406
1.02191829828,3.32248533227,8.90503753631,0.496150896848
9.27131675674,7.20305205602,1.89444517606,0.415224127602
8.58991965288,2.35461556759,7.40868626942,0.445999636987
5.04466866798,6.60683778908,4.67992690284,0.302311309796
0.900087354822,8.51345973159,8.84073726904,0.514662554363
8.24458014179,6.67494790582,4.87688701557,0.361957599258
3.17616538702,2.61556948485,1.42565221838,0.326428143641
7.29417568559,9.38375198398,1.3814047728,0.185132176884
0.429932691818,4.76278946681,1.76286524799,0.353779653727
5.81921363012,2.9324989327,4.82564584027,0.252323093029
3.74490831117,7.88541088748,8.31173365729,0.337377702626
3.04814701468,5.89401610374,9.00266245728,0.394835632537
8.24179897856,7.25962339864,1.78990769768,0.300200181033
8.91756657208,3.55402408464,1.58109283293,0.41553114118
3.63422471288,4.67503392171,7.28248978155,0.293292890016
5.4310564311,3.01329810756,4.52473555365,0.307130607196
0.931060757949,4.82605025319,1.63643150855,0.495889569571
7.27760058626,2.91135688791,2.76453510381,0.593007303526
6.68655858368,5.36179968876,3.9049399343,0.485972808265
2.20928041268,7.46036717253,6.05717724527,0.257467006649
4.87538117096,5.9408823772,1.61622233369,0.763739913349
4.43721735101,2.34168034615,7.77329659574,0.518027512791
8.14858009011,8.72953388442,7.66728234786,0.38938590111
1.28984815668,1.13996148072,2.18920804965,0.409725430269
4.76132587453,7.90666996376,4.8278804054,0.423941429644
6.50446864221,6.36946326355,2.62809779213,0.235642740943
6.11770500155,8.60622294825,7.32200312674,0.340523749425
2.37037694141,2.67458906547,8.20112366469,0.230094729199
1.19356412531,2.52301740815,7.41115913106,0.311891888547
5.515529407,6.61732526458,5.71684671759,0.142155085676
7.62687584452,3.82612615083,6.71851578146,0.594403163207
6.35013717025,6.52740709204,9.61721115676,0.22519306969
4.15023240486,2.63930940154,2.03773604314,0.531457568447
8.7799706447,6.42037832218,6.51386705581,0.644216165221
3.2624384312,9.29963428219,2.06153177454,0.55723840481
2.7785709727,2.71099940685,5.62883886235,0.169531956438
6.26241545938,2.40968775233,3.95310419219,0.34289212571
4.45137822928,1.21212156959,1.85159150453,0.466805873355
1.18431184349,7.40232571196,6.55557784521,0.353508943141
6.0612978083,5.72433455357,7.84701341789,0.198719009548
2.02506220439,4.20010891899,2.06111508929,0.324970854
5.07855474499,5.24692951095,0.488582353344,0.374218584052
2.167901227,1.29040200916,9.16839541425,0.197401033969
9.25272041678,1.54590953872,5.28214983795,0.687968136954
5.76438427586,5.66669302399,1.09802503556,0.567831380038
9.36777163989,6.07335878336,9.50191009047,0.493002681805
2.79030977132,7.9817975943,4.7561967087,0.239005436264
2.23537667223,6.93168303345,3.70503415941,0.433868577953
0.725253600802,1.31217730083,8.0872647001,0.333745321821
4.63774251576,9.54084749838,6.75811203833,0.358177323623
3.88144963115,4.82284202846,5.73889027698,0.442917114237
1.45603069612,6.17504029196,7.33255967457,0.222181220187
8.7043249376,2.0488600915,8.05982195662,0.440677414626
6.45051757933,1.07640386697,5.5701963361,0.188285240471
6.68916570322,9.01602095697,4.35060343949,0.196111258052
5.77925123679,6.50571635394,3.95005987803,0.267640691245
4.09004298013,0.791188804578,3.87273383698,0.518624338519
8.88439579429,1.2140178757,7.70805954303,0.516614930078
2.10665644604,2.9706262539,6.36582439395,0.250172716034
5.1489545255,6.67584380649,7.51776724331,0.174680803313
6.77591155732,0.621884737533,2.44088149614,0.227600922166
8.68341292567,3.46222538222,7.67112516118,0.268003371533
6.73732832705,4.59188513464,3.55236684105,0.234749695306
5.9723836665,1.78416646581,3.00963927422,0.187760917146
2.79826570486,3.90112546933,9.39621379699,0.459177709601
6.14113813539,2.8309989276,6.05883603535,0.486588468033
7.36882381167,5.36477778622,4.67423910523,0.106041242742
3.45057785888,6.78216910264,2.34246390435,0.39115625375
8.84214275899,5.45815173948,5.77576955331,0.488425289716
9.45880614336,4.6510845332,1.74659430566,0.519630871509
4.81344794447,1.56385337339,3.13725642443,0.269318543639
5.91940074642,8.14198330677,5.64185290317,0.226157687311
3.28361495432,2.83375140762,0.605726314617,0.460613071432
8.32226140531,2.41829767333,2.3417692733,0.111733911459
6.30911211118,6.88753786225,2.15385961947,0.475176024852
2.94149774474,9.02521862637,4.80935171758,0.600481137487
4.17961970378,7.96237603152,1.80359064741,0.339133196371
2.95634448866,2.64668182777,0.546839187277,0.28038489885
4.6771113805,4.14519195738,6.38799383528,0.401099016781
0.270108588845,2.20409648093,7.89077925286,0.225050255655
1.30930636605,5.23161501261,4.32014830821,0.376832048038
1.11568815733,5.3872095175,4.55748929117,0.286652425198
3.86048147865,2.52806989905,8.13772168514,0.314577805288
4.4344332141,3.49674049399,1.93910559762,0.413263421048
5.00642514026,9.11970825295,4.70436056625,0.480504986778
1.54802495578,5.49092912944,3.69685559574,0.340196612625
3.05992747207,0.697897031981,4.5193003977,0.186315238937
0.88934902443,8.19784245169,2.20016129015,0.474218294197
2.05013816659,3.05680508868,0.484888712447,0.451589093414
7.80863425645,3.29630974968,3.94142736956,0.712004079164
0.506406343738,1.68695192926,0.714748139925,0.335891669968
8.19649601633,7.68407124202,9.4327572299,0.452749935049
8.9250886494,2.35279382825,0.486960594326,0.397926522804
2.59164509191,7.85903100386,1.64130996079,0.533254757846
3.80206350221,6.09843188758,7.59489577514,0.206989222927
7.20430822569,8.41861410199,1.84175676863,0.29306089393
8.60995586349,7.82439449677,4.79167995612,0.205807954687
6.46928646241,1.32836827001,6.41942872379,0.397516602053
0.722714595151,1.83340414188,1.15495022456,0.470419368098
4.04685187779,7.64839376946,0.253392414382,0.160975292733
4.20133912363,2.66851057041,6.99054093229,0.25094925528
5.27523869872,1.82458315903,1.48021023274,0.426811695691
7.71873371028,5.79154785735,2.33523038702,0.501227592678
7.20236112583,1.58426402614,3.09592930606,0.223576182765
4.81717728608,9.12174419772,6.41988853552,0.367544477231
7.45415527992,4.90714417368,9.45267350295,0.327655455745
8.74163747056,2.5775347982,0.816703365902,0.392877105011
1.33455112733,4.56981557631,4.19335926274,0.291977833516
5.12566312344,0.936215542861,7.92058694846,0.54165489366
3.54781191435,9.24617595948,3.01441846898,0.485878734047
1.29981210627,8.83418391299,3.18246941397,0.325788748449
1.26712260978,3.35452020785,4.23322047594,0.22944052271
3.32926566913,5.79508026783,3.79009290605,0.186898523317
0.597352255299,3.56039237874,1.88588623554,0.521911562391
5.0015835023,9.25564034933,8.06855732512,0.365051968757
5.82448625816,5.08074315645,6.25614072477,0.345693816656
5.78421426289,5.33267074331,4.69180413383,0.249392986108
1.23581287256,5.80897161126,7.15911156149,0.349914819418
6.36783700577,6.04944206445,5.12637722119,0.502839901227
0.719999464035,3.3897685031,3.70657683269,0.333268473525
9.66569952059,1.70685377258,3.39071622244,0.252884623374
5.39945627068,2.96938390695,8.89786279677,0.41435269235
2.96003509294,6.36714003453,1.88402754254,0.129861501347
6.42603928563,6.0680200523,8.9750099526,0.312003134317
9.24056779574,6.37891527668,8.95000343024,0.38743878847
6.16557320295,6.42319438618,0.852190321433,0.268148687846
7.44412007249,5.42802075379,0.720722690636,0.326673893585
7.96549913551,9.77810591491,0.207581927538,0.172459399772
7.52352383503,8.95390095522,9.25508037067,0.111818240655
4.57692470694,8.10407992947,6.09454477421,0.409537208677
8.19812768279,9.51889484203,2.04343664544,0.252568803364
8.48107929513,2.06048623765,1.1022312416,0.43681664263
3.30277208248,8.19034541013,1.36194946833,0.331846419279
6.64912327338,5.28704498209,8.05747175141,0.417143514077
6.70652207316,8.54689024122,0.359035206841,0.328972318781
0.411518405542,1.30677273932,3.098180313,0.115149968703
1.13854855021,5.19574012528,7.43163956425,0.367598025729
1.04174566751,5.84390254988,2.0068456472,0.199912364795
5.51356053934,4.38285509463,8.04501258987,0.434284456671
3.2564903179,7.82849183842,6.91132632119,0.510087088992
1.22735923736,0.425222510889,1.83626410986,0.383435873872
1.21446355175,2.2197393013,8.79892765086,0.42673788569
3.40866146167,9.35254888693,6.04573496002,0.387473818238
8.87450931205,4.80469835913,5.6027228271,0.528995123409
7.81286311728,4.52378762919,6.09942366323,0.161652360353
7.43139293855,8.07259897883,4.32739394219,0.419322250865
9.34880691095,1.96822383544,0.954527321438,0.344736322269
2.32945338028,0.354714586298,0.688292739918,0.19614529933
8.03141359259,7.79853893685,4.25152515405,0.370587734328
2.7704903399,6.18129141965,9.24545746748,0.394059787024
7.21473662686,7.96816808992,5.7345449294,0.441251022553
6.3326849393,9.64185416606,2.17573874151,0.23825412549
1.28931688393,9.41498944251,6.83242301885,0.313908306063
8.01332099244,2.29058614249,3.80491451705,0.195590024527
4.40036194096,9.10381249314,5.03105464938,0.271388431291
2.82821978546,1.86853555406,3.4128757201,0.515547858095
3.26442377362,3.22652086573,0.903868293499,0.396330848117
3.27278293722,4.56710681713,5.71170465713,0.574163025123
2.71901083652,1.00018724755,3.31167710797,0.150530513784
2.01108546461,5.2217443857,4.16890379068,0.269547465063
8.35497940226,1.60207107602,9.5282603067,0.212690239246
0.363900459909,1.29521971307,7.85343598497,0.283220862233
3.40795810466,8.90156086876,3.77457874228,0.469857916685
5.9089465865,7.20382976931,2.6855036582,0.414268288484
7.0778163521,4.03101959025,4.08497529297,0.382829069004
8.66413172134,9.0051156719,9.44900809208,0.469151731746
5.27961488672,4.54977771484,3.25838770873,0.243825251708
1.39106139395,5.0767192159,6.05242863547,0.290975452832
7.404994117,9.28939566751,6.13132639497,0.47886016814
2.50951142929,1.06531827921,1.66230349423,0.461731301821
6.7513772868,9.39108620063,5.21197046676,0.36547103721
6.26981552522,5.59387479645,2.95143565004,0.160391912682
8.69177729153,4.1920706313,3.03779660933,0.379709745845
8.80540606675,3.31842432115,2.43815126415,0.390701825144
1.55332900426,1.93865376231,9.49365373335,0.383613962119
3.26370470271,8.88165769992,1.63120171989,0.397106536988
2.15912733726,4.6458781519,8.89428303499,0.104698806144
8.60477945731,6.56093299446,9.45654104685,0.126028076857
5.41839602548,0.900131084821,7.29399478886,0.199050942002
6.59425439363,4.32564303428,6.43737656533,0.239472375254
1.00010174431,4.62885346247,3.65996093639,0.482741584857
2.70634057669,0.535531670573,6.37418913584,0.378130753699
3.3140900155,4.48606963437,8.32717574686,0.352891238491
0.185619588168,8.75841774226,2.51582540969,0.109710571524
7.59747824361,2.30099078871,2.59195428405,0.400246453887
4.33840490679,1.77124373862,0.905547413475,0.470306703886
7.36245190137,2.3090746235,4.84432290648,0.170867820351
8.16335674277,6.01939379525,6.1165694951,0.408460842173
6.35295126417,7.31512077725,3.96245866548,0.141076286557
6.41860203791,4.18730225541,1.59140494502,0.467918881623
9.45697987832,6.20160487255,6.03390202483,0.193598854916
2.25253929976,2.6623508601,1.49347667902,0.380383065895
3.39181790103,7.61224783096,6.00048888642,0.378683811113
1.30937793947,6.96002790934,3.29490695951,0.265403942706
5.35956401725,4.90609115357,2.43209228974,0.274759403112
8.80091083145,5.9987841918,8.64816353688,0.176534800258
8.3376401743,9.56178984414,5.16554796747,0.210148988198
0.669088657018,4.38103281728,8.80125112444,0.120022253948
0.325984862468,7.52248749207,3.29294238559,0.170492752295
6.52616330656,5.02899197121,2.06044325001,0.291652153368
0.747148552866,2.45492891432,0.991777559311,0.29005522121
3.05653202531,0.709132942207,7.04587613766,0.258743379645
4.04961950347,7.96252404091,4.37542819529,0.408450293477
0.489851099573,9.35601231086,6.06437115419,0.265802099773
5.74029409064,0.689313933312,9.1510248701,0.471884234044
5.0332197689,5.9103849091,7.7736548915,0.147436879878
3.829795126,5.15997817034,2.7979281897,0.321519114037
0.977839703513,4.06254240768,1.44418238352,0.260657775743
0.440618607741,7.71196144027,0.508038481897,0.253033808272
3.76441461136,7.52114655503,5.94287898226,0.330542688159
5.3808838251,1.87126365514,9.18187402053,0.454380883678
3.97700728603,6.91270965566,4.17838882499,0.52523333286
5.70700902566,0.628283317573,6.7095339883,0.338831132578
6.68413614733,5.64410410122,2.99237625153,0.224967426941
9.08479316956,7.75273097204,6.91599797451,0.285789065882
1.46712174298,8.25049266786,6.51377395662,0.391505190961
7.72342062438,2.4948698581,6.00333096721,0.13982850495
5.44791579732,2.77115584091,1.96122528546,0.502668447477
6.58230094033,9.5015234729,9.06893600602,0.443476254531
5.17552195737,6.73557141475,1.51897248527,0.625755022492
7.63386135146,3.18721052303,7.50668959856,0.442282645989
3.71590079076,9.1537552141,6.84026987201,0.45072672277
2.65981621701,7.65815833593,1.14220990177,0.533215717862
2.60736528061,7.88377657563,1.96005441543,0.125666385349
7.12920157779,7.0353474098,7.28404789221,0.145528015821
2.58372550353,6.86913492275,8.09577840868,0.305454391418
7.22428980422,9.11371910813,2.43204293346,0.194612311292
1.01239398858,8.67644153121,5.00646277408,0.297060255002
0.256230698246,2.69741713551,2.66248035131,0.174408605867
5.33103266487,3.18919171296,6.68835584166,0.465526479282
9.39602778949,5.11485768636,8.88863060508,0.284044080236
1.80001995714,3.60088703694,5.50043293108,0.316471524843
1.66812174423,7.27082892326,1.62711993664,0.136106488487
6.31935977742,5.58852328373,1.63029996488,0.189856414515
6.26872409871,0.522678630567,1.52211772701,0.264356587719
8.07082297057,7.82056317569,7.7707466139,0.323932425355
1.19277814101,1.93236659318,3.2082815338,0.211806607632
3.19043331634,9.17956469298,7.17972266804,0.348374361852
1.93623529512,0.782667563219,9.74312276774,0.193367930399
0.419660074177,0.910463846945,7.54557967317,0.381881182597
6.30829640138,1.86868483847,5.27950748021,0.527550929678
7.85384296262,0.411706197301,0.744907005017,0.213606273725
2.23120135504,4.08501251892,8.93802085468,0.353105858537
5.57227301173,3.27513459694,7.12808903025,0.302531588446
5.84965285671,6.77080502716,1.78184303393,0.404750456861
1.42555403846,2.53533403066,0.86957709007,0.601724362306
7.10570699627,1.35381430209,7.43947858713,0.536027973206
4.43171455836,4.27383079542,8.26002308311,0.297639762713
0.974258901985,0.778688207353,9.35520931104,0.292831733753
7.32496579575,6.73195027642,0.738189276821,0.587972016543
8.49358583601,2.57574147543,9.22436439994,0.494285353012
3.33313746305,2.95597111027,2.0569196989,0.38548301081
9.5703722236,7.8656335054,0.301774504144,0.269087848829
2.44101220302,5.58475003012,3.71777149991,0.393523952515
2.13439369356,7.33675377927,4.04529582822,0.479608958099
7.61819725609,2.4649196422,5.41317169154,0.234096179048
8.84664092681,4.8938453166,8.68433674455,0.297852401373
9.45105630935,6.65017214139,5.2332415527,0.377693851542
4.54241999404,2.41250565374,9.07802369632,0.533712897072
6.76130632124,3.05835061596,5.87345664403,0.318524748445
1.19801931352,1.90371033008,2.81421502259,0.301314514592
0.646186302871,0.966589346728,1.20089191623,0.461404989739
2.09756426721,5.87991398113,8.20512673228,0.464162142966
9.0449737673,0.971642001493,3.05619642676,0.509054172724
8.47710366915,3.46562217529,3.22050072259,0.349457323231
4.42212980983,7.3433123179,9.01274010844,0.488656641085
2.95562678395,0.991429984799,1.07395683232,0.391683834647
6.59802533162,9.15455813484,3.69409665745,0.164252884388
2.1566683102,6.43887166263,3.87852787291,0.389622421004
0.545119053966,8.69667561176,3.95325689587,0.534660843807
1.03901412417,6.05504282247,3.12239128867,0.394149879172
6.21378163222,6.98121064351,1.36969187138,0.266609634531
1.7867931266,3.86663124638,3.92445042752,0.312293932901
7.52001955934,1.13468362612,4.69234848453,0.211728192764
1.44670016004,1.69996783071,6.45722766121,0.223221000971
4.65045886459,4.0313359098,3.8186694201,0.26589522814
9.11506939073,0.685544493317,8.92468142958,0.32707096578
6.31261029943,3.93459323843,8.10417912027,0.356978923029
4.18044307211,7.93906509835,1.33295635627,0.229555633935
4.82436466647,0.445987870939,8.73532260738,0.244947412951
6.92578073133,7.55407189095,7.36036992948,0.171587933144
0.555895655271,7.93321560563,8.04744101697,0.455951533028
4.1280546932,4.13884867175,6.2132741324,0.361275511334
1.79812845627,1.32725029662,1.09617964689,0.140513542711
6.99168762866,5.5619045233,1.38902714532,0.470402680459
1.15420438088,6.16989574891,9.57133771729,0.287280393824
2.6227976882,7.93434245921,8.30388576481,0.119843815551
6.68687175373,3.57392639544,2.7440828594,0.313428778445
0.604356619862,8.06858089921,0.986343484725,0.233271965656
8.0033182682,2.35646679444,3.26702386575,0.535428944961
7.93737306969,2.75001659277,4.98853870757,0.426279248512
6.95655449245,6.63647319112,9.45252538509,0.20521360495
4.69867162925,5.19222169482,5.43322499216,0.459312312525
5.35614551157,1.50160602918,7.12426577201,0.146503563246
4.92896437493,3.87756748006,3.30318451104,0.281376440455
3.4445691254,7.71492756647,6.49142644373,0.220573556755
8.02605582672,8.85916186199,9.39126380887,0.473171601332
4.03308611614,0.610121632632,3.47785107631,0.311611546384
8.7620608916,4.80619152563,7.87313369543,0.345502013031
5.8838314338,4.22657327839,2.99068629307,0.307810301355
5.63917663569,3.91308042482,6.78547253431,0.53222148235
7.11466686192,5.87830946858,6.72704218108,0.298958144171
4.90714578855,4.64237139726,7.79875717952,0.149221056638
8.22970499229,3.22930592213,6.98518384466,0.315138368114
0.63895274562,6.11253816494,0.532064772766,0.525962567522
9.26956070138,3.70464545855,3.83922273028,0.311559960123
6.18020940245,0.544950722157,2.68540221475,0.316841064447
6.82865095518,8.56164568584,9.16253129746,0.37362635969
4.49560410622,0.504346257779,2.75642057755,0.398402212446
5.35229441423,7.72996404212,5.65506920818,0.346385149625
2.96088051018,7.95636245095,3.68860562041,0.544993120308
6.53176347568,8.47383600535,9.15592200289,0.109088741775
5.41970931577,5.27015290907,6.12562187683,0.401520753285
4.07370256365,5.66412086378,8.07060822374,0.242486253037
7.42187249513,7.70269210191,0.388577706792,0.296554335768
3.68152856626,9.69037519477,1.91463614361,0.304781197207
7.27414850307,8.56070722367,2.13096845274,0.131533184051
2.32698786681,8.50536373776,5.52962203908,0.208264286523
7.35938026582,5.32890295127,6.61579244348,0.356998544132
9.57440323472,0.611451553239,3.83213090043,0.393480052567
7.45798287089,0.838938245904,0.332923878634,0.179500510241
0.446731711422,7.77204953992,6.4276088522,0.153726233689
5.61664122016,5.23725655029,0.353138728996,0.342515874298
1.21632217083,4.87472017673,3.23276267074,0.462195971008
6.7383142568,0.53282246458,0.87213305314,0.162608552091
4.95606096361,4.66786061684,1.94315639693,0.302224301763
4.40798609313,6.07802362259,1.4340623256,0.434250558196
0.362078871892,6.2604627803,0.493830081405,0.239432988034
1.878224379,4.44814727134,0.420710466562,0.338884604864
7.03083135303,3.04522021112,6.32156016828,0.210262486516
6.46498735022,9.21515365157,8.00213252731,0.136691274084
3.3477598218,6.73945984821,7.27637413971,0.450803249515
2.60885915672,4.86563452064,6.21368991202,0.10357978949
4.54822006842,8.73365634267,8.68620213016,0.147299685256
6.22006189276,5.38420459289,6.84518296172,0.1791112848
0.681863723428,2.19958188659,7.14385721857,0.482621775328
1.49193838512,5.66857042339,5.40583236956,0.260642538017
7.6085825697,1.29183264054,6.49228638682,0.588653782594
1.69479919466,7.31400988873,4.25267440904,0.431039101306
3.13004684315,6.84092091597,4.65998210046,0.271570042065
3.85538072298,5.97137240429,1.12062285086,0.52648548557
0.335277518399,2.45778031511,6.54105685369,0.308235199809
3.47180486848,3.35186737512,8.09649040319,0.252847698315
5.72019240891,4.3474072803,2.54984082976,0.303748706471
6.84938223033,7.38854542466,3.2659839065,0.432136798541
7.91428898085,7.52574513875,9.76293331076,0.230869227433
6.99587372598,6.24784564489,3.25741344406,0.227965443993
1.44986558801,4.37600938179,8.77412606345,0.464220928858
6.11789498236,8.85583962878,1.69501375925,0.133760861044
8.58019003709,6.01159070803,8.20128648944,0.319196315171
9.83743578405,0.685308685991,6.76024540609,0.111437583452
3.03534597878,8.80850836346,3.64332782099,0.286980417823
5.27443111517,6.43844767801,8.15576283994,0.323437248765
2.44568452348,1.81431262346,1.99892151581,0.140298946731
5.22973416904,9.16557597539,9.26198308277,0.342011904127
0.732313436984,3.7670314184,9.56791560571,0.114723712083
7.78080920719,1.59587545494,2.07723032317,0.359622821495
9.64002252361,2.30708108538,4.50933234231,0.312930999973
8.18472717169,8.08758415465,1.28955345807,0.22034525673
7.30284402626,9.79514245769,7.45976672657,0.163902027335
4.89666771113,8.56201203616,4.81963594951,0.343276823613
4.69319515797,4.91398413473,8.97163173754,0.11441516931
4.45366075916,6.62302836946,4.79153040882,0.198708355839
9.54159570411,1.86038815694,2.25014583116,0.329393772914
4.28595111164,9.47369962024,7.3183618343,0.501796010212
8.73387074291,9.13362307673,1.27880259756,0.373005849568
1.07765481242,2.51236601946,6.64664757994,0.349725491605
5.19428575923,1.81724464112,0.298483515139,0.162929472108
1.00264904199,1.05629726196,1.69307042762,0.428282078944
1.83246376128,1.34646376755,3.33905208761,0.52102363714
4.4060230115,3.6768934479,8.43449955726,0.282547291507
9.51963887709,1.68423370758,6.67010295274,0.295151507986
8.77728521241,9.38360451358,6.19120075618,0.538558660299
1.05318856451,8.43868171158,7.03526816397,0.502072302622
3.56043013705,2.2235804274,8.53059850232,0.286716857787
4.59930331735,6.02937246138,0.907519840142,0.480855753796
6.32433628503,3.27628755656,3.26095869196,0.416209469974
2.21122559398,2.46182480642,1.95014286383,0.459425414787
0.850791756027,3.89416576811,7.50967106148,0.198503722999
5.63734187877,3.17531296385,3.47788574823,0.154955491362
7.76608802043,1.50911864614,8.73997475518,0.297375619259
1.1562274064,8.2061167753,3.01054895852,0.346970722629
3.81619734723,5.78726680461,3.4051216772,0.297195504718
1.67388779033,0.567567422354,5.03838848692,0.460696167656
7.00869884091,8.95362882404,8.43411302809,0.459622098408
5.46807655061,3.96732071291,6.08847422133,0.134128054451
6.06101330333,9.40690823035,2.45681624377,0.422581138103
3.50986361504,1.08011598514,4.152099231,0.123329765343
0.737016886319,0.711903494762,6.2055680784,0.212915494764
5.52596891553,3.5400171186,9.01244270736,0.527796448492
2.48508419672,7.22668395082,2.51345685002,0.459671205669
0.568721829726,8.23760740491,3.13348958305,0.255302648662
7.98688465144,8.94745160391,5.08377085832,0.115881285567
2.91673338499,4.64066596379,6.85393398582,0.278260906
6.16495790001,9.53295030067,2.24834455325,0.138029914411
1.72525497126,3.2257073287,7.88649642598,0.455387503691
